-144.16000366210938 -268.07000732421875 2600
-140.58999633789063 -268.07000732421875 2500
-137.02000427246094 -268.07000732421875 2500
-132.25 -268.07000732421875 2400
-121.52999877929688 -268.07000732421875 2100
-84.589996337890625 -268.07000732421875 500
-77.449996948242188 -268.07000732421875 100
-58.380001068115234 -268.07000732421875 -500
-54.810001373291016 -268.07000732421875 -600
-25.020000457763672 -268.07000732421875 -1000
-20.260000228881836 -268.07000732421875 -901.00002288818359
1.190000057220459 -268.07000732421875 -500
-96.510002136230469 -266.8800048828125 800
-92.930000305175781 -266.8800048828125 600
-46.470001220703125 -266.8800048828125 -1100
-33.360000610351563 -266.8800048828125 -1300
-10.729999542236328 -266.8800048828125 -1100
-128.67999267578125 -265.69000244140625 2100
-117.94999694824219 -265.69000244140625 1600
-113.19000244140625 -265.69000244140625 1400
-109.61000061035156 -265.69000244140625 1200
-104.84999847412109 -265.69000244140625 1000
-101.26999664306641 -265.69000244140625 800
-89.360000610351563 -265.69000244140625 200
-72.680000305175781 -265.69000244140625 -700
-69.110000610351563 -265.69000244140625 -800
-65.529998779296875 -265.69000244140625 -901.00002288818359
-61.959999084472656 -265.69000244140625 -1100
-42.900001525878906 -265.69000244140625 -1500
-38.130001068115234 -265.69000244140625 -1600
-29.790000915527344 -265.69000244140625 -1600
-16.680000305175781 -265.69000244140625 -1600
-5.9600000381469727 -265.69000244140625 -1400
-145.36000061035156 -264.5 2500
-138.22000122070313 -264.5 2300
-134.6300048828125 -264.5 2200
-125.09999847412109 -264.5 1800
-84.589996337890625 -264.5 -400
-81.019996643066406 -264.5 -600
-76.25 -264.5 -800
-57.189998626708984 -264.5 -1600
-51.240001678466797 -264.5 -1700
-26.219999313354492 -264.5 -2000
-20.260000228881836 -264.5 -2000
-2.4000000953674316 -264.5 -1600
2.380000114440918 -264.5 -1500
-141.77999877929688 -263.30999755859375 2300
-97.699996948242188 -263.30999755859375 100
-46.470001220703125 -263.30999755859375 -2100
-33.360000610351563 -263.30999755859375 -2300
-13.109999656677246 -263.30999755859375 -2200
-131.05999755859375 -262.1099853515625 1800
-121.52999877929688 -262.1099853515625 1300
-116.76000213623047 -262.1099853515625 1000
-112 -262.1099853515625 700
-107.23000335693359 -262.1099853515625 400
-101.26999664306641 -262.1099853515625 0
-94.129997253417969 -262.1099853515625 -400
-90.550003051757813 -262.1099853515625 -700
-70.30999755859375 -262.1099853515625 -1700
-65.529998779296875 -262.1099853515625 -1900
-61.959999084472656 -262.1099853515625 -2100
-42.900001525878906 -262.1099853515625 -2500
-29.790000915527344 -262.1099853515625 -2600
-5.9600000381469727 -262.1099853515625 -2400
-146.55000305175781 -260.92999267578125 2300
-135.83000183105469 -260.92999267578125 1800
-127.48000335693359 -260.92999267578125 1400
-86.980003356933594 -260.92999267578125 -1200
-79.830001831054688 -260.92999267578125 -1600
-76.25 -260.92999267578125 -1801.0000228881836
-58.380001068115234 -260.92999267578125 -2500
-54.810001373291016 -260.92999267578125 -2600
-50.040000915527344 -260.92999267578125 -2700
-38.130001068115234 -260.92999267578125 -2900
-26.219999313354492 -260.92999267578125 -2900
-19.069999694824219 -260.92999267578125 -2900
-9.5399999618530273 -260.92999267578125 -2800
-2.4000000953674316 -260.92999267578125 -2600
2.380000114440918 -260.92999267578125 -2500
-142.97000122070313 -259.739990234375 2000
-139.39999389648438 -259.739990234375 1900
-97.699996948242188 -259.739990234375 -800
-83.400001525878906 -259.739990234375 -1700
-46.470001220703125 -259.739990234375 -3100
-34.569999694824219 -259.739990234375 -3200
-22.639999389648438 -259.739990234375 -3200
-15.489999771118164 -259.739990234375 -3200
-123.91000366210938 -258.54000854492188 800
-120.33999633789063 -258.54000854492188 500
-115.56999969482422 -258.54000854492188 200
-112 -258.54000854492188 -100
-108.41999816894531 -258.54000854492188 -400
-104.84999847412109 -258.54000854492188 -600
-92.930000305175781 -258.54000854492188 -1500
-69.110000610351563 -258.54000854492188 -2700
-65.529998779296875 -258.54000854492188 -2900
-42.900001525878906 -258.54000854492188 -3400
-29.790000915527344 -258.54000854492188 -3500
-146.55000305175781 -257.35000610351563 1900
-135.83000183105469 -257.35000610351563 1400
-127.48000335693359 -257.35000610351563 800
-101.26999664306641 -257.35000610351563 -1200
-88.169998168945313 -257.35000610351563 -2100
-78.639999389648438 -257.35000610351563 -2600
-75.05999755859375 -257.35000610351563 -2800
-59.580001831054688 -257.35000610351563 -3300.9998321533203
-56 -257.35000610351563 -3400
-52.430000305175781 -257.35000610351563 -3500
-39.319999694824219 -257.35000610351563 -3700
-19.069999694824219 -257.35000610351563 -3700
-10.729999542236328 -257.35000610351563 -3600.9998321533203
-5.9600000381469727 -257.35000610351563 -3500
-1.2100000381469727 -257.35000610351563 -3500
-142.97000122070313 -256.16000366210938 1600
-139.39999389648438 -256.16000366210938 1400
-97.699996948242188 -256.16000366210938 -1801.0000228881836
-83.400001525878906 -256.16000366210938 -2700
-48.849998474121094 -256.16000366210938 -3800
-26.219999313354492 -256.16000366210938 -3900
-22.639999389648438 -256.16000366210938 -3900
-14.300000190734863 -256.16000366210938 -3900
2.380000114440918 -256.16000366210938 -3600.9998321533203
-121.52999877929688 -254.97000122070313 -200
-117.94999694824219 -254.97000122070313 -500
-114.37999725341797 -254.97000122070313 -800
-109.61000061035156 -254.97000122070313 -1200
-94.129997253417969 -254.97000122070313 -2300
-69.110000610351563 -254.97000122070313 -3500
-65.529998779296875 -254.97000122070313 -3600.9998321533203
-45.279998779296875 -254.97000122070313 -4000
-32.169998168945313 -254.97000122070313 -4100
-135.83000183105469 -253.77000427246094 700
-131.05999755859375 -253.77000427246094 300
-127.48000335693359 -253.77000427246094 0
-106.04000091552734 -253.77000427246094 -1801.0000228881836
-102.47000122070313 -253.77000427246094 -2100
-88.169998168945313 -253.77000427246094 -3000
-79.830001831054688 -253.77000427246094 -3400
-76.25 -253.77000427246094 -3500
-72.680000305175781 -253.77000427246094 -3600.9998321533203
-59.580001831054688 -253.77000427246094 -4000
-56 -253.77000427246094 -4000
-41.700000762939453 -253.77000427246094 -4100
-38.130001068115234 -253.77000427246094 -4200
-17.879999160766602 -253.77000427246094 -4200
-10.729999542236328 -253.77000427246094 -4200
-7.1500000953674316 -253.77000427246094 -4100
-3.5799999237060547 -253.77000427246094 -4100
-147.75 -252.58000183105469 1400
-142.97000122070313 -252.58000183105469 1100
-139.39999389648438 -252.58000183105469 800
-97.699996948242188 -252.58000183105469 -2700
-83.400001525878906 -252.58000183105469 -3500
-28.600000381469727 -252.58000183105469 -4300
-25.020000457763672 -252.58000183105469 -4300
2.380000114440918 -252.58000183105469 -4200
-119.15000152587891 -251.38999938964844 -1300
-113.19000244140625 -251.38999938964844 -1801.0000228881836
-94.129997253417969 -251.38999938964844 -3200
-69.110000610351563 -251.38999938964844 -4100
-65.529998779296875 -251.38999938964844 -4100
-52.430000305175781 -251.38999938964844 -4200
-48.849998474121094 -251.38999938964844 -4300
-45.279998779296875 -251.38999938964844 -4300
-34.569999694824219 -251.38999938964844 -4300
-14.300000190734863 -251.38999938964844 -4300
-133.44000244140625 -250.19999694824219 -200
-129.8699951171875 -250.19999694824219 -600
-125.09999847412109 -250.19999694824219 -1000
-109.61000061035156 -250.19999694824219 -2400
-102.47000122070313 -250.19999694824219 -2900
-89.360000610351563 -250.19999694824219 -3700
-77.449996948242188 -250.19999694824219 -4000
-73.879997253417969 -250.19999694824219 -4100
-61.959999084472656 -250.19999694824219 -4200
-57.189998626708984 -250.19999694824219 -4300
-41.700000762939453 -250.19999694824219 -4300
-21.450000762939453 -250.19999694824219 -4300
-17.879999160766602 -250.19999694824219 -4300
-8.3400001525878906 -250.19999694824219 -4300
-2.4000000953674316 -250.19999694824219 -4300
-147.75 -249.00999450683594 800
-142.97000122070313 -249.00999450683594 400
-139.39999389648438 -249.00999450683594 100
-97.699996948242188 -249.00999450683594 -3500
-85.790000915527344 -249.00999450683594 -4000
-81.019996643066406 -249.00999450683594 -4100
-38.130001068115234 -249.00999450683594 -4200
-27.409999847412109 -249.00999450683594 -4200
1.190000057220459 -249.00999450683594 -4300
-121.52999877929688 -247.82000732421875 -2000
-117.94999694824219 -247.82000732421875 -2300
-106.04000091552734 -247.82000732421875 -3200
-94.129997253417969 -247.82000732421875 -3800
-70.30999755859375 -247.82000732421875 -4200
-65.529998779296875 -247.82000732421875 -4200
-53.619998931884766 -247.82000732421875 -4200
-46.470001220703125 -247.82000732421875 -4100
-34.569999694824219 -247.82000732421875 -4100
-14.300000190734863 -247.82000732421875 -4100
-135.83000183105469 -246.6300048828125 -901.00002288818359
-132.25 -246.6300048828125 -1200
-110.80999755859375 -246.6300048828125 -3200
-102.47000122070313 -246.6300048828125 -3700
-89.360000610351563 -246.6300048828125 -4100
-75.05999755859375 -246.6300048828125 -4200
-61.959999084472656 -246.6300048828125 -4200
-57.189998626708984 -246.6300048828125 -4100
-50.040000915527344 -246.6300048828125 -4000
-42.900001525878906 -246.6300048828125 -4000
-23.829999923706055 -246.6300048828125 -3900
-17.879999160766602 -246.6300048828125 -4000
-9.5399999618530273 -246.6300048828125 -4000
-4.7699999809265137 -246.6300048828125 -4100
-146.55000305175781 -245.42999267578125 0
-142.97000122070313 -245.42999267578125 -400
-139.39999389648438 -245.42999267578125 -800
-128.67999267578125 -245.42999267578125 -1900
-125.09999847412109 -245.42999267578125 -2200
-114.37999725341797 -245.42999267578125 -3200
-85.790000915527344 -245.42999267578125 -4200
-82.209999084472656 -245.42999267578125 -4200
-39.319999694824219 -245.42999267578125 -3800
-30.979999542236328 -245.42999267578125 -3700
-27.409999847412109 -245.42999267578125 -3700
-1.2100000381469727 -245.42999267578125 -4000
-120.33999633789063 -244.24000549316406 -2900
-97.699996948242188 -244.24000549316406 -4100
-94.129997253417969 -244.24000549316406 -4200
-70.30999755859375 -244.24000549316406 -4000
-65.529998779296875 -244.24000549316406 -3900
-53.619998931884766 -244.24000549316406 -3700
-34.569999694824219 -244.24000549316406 -3500
-14.300000190734863 -244.24000549316406 -3600.9998321533203
2.380000114440918 -244.24000549316406 -3900
-133.44000244140625 -243.05000305175781 -2000
-110.80999755859375 -243.05000305175781 -3800
-107.23000335693359 -243.05000305175781 -4000
-103.66000366210938 -243.05000305175781 -4100
-89.360000610351563 -243.05000305175781 -4200
-78.639999389648438 -243.05000305175781 -4100
-75.05999755859375 -243.05000305175781 -4000
-60.770000457763672 -243.05000305175781 -3600.9998321533203
-48.849998474121094 -243.05000305175781 -3400
-45.279998779296875 -243.05000305175781 -3300.9998321533203
-23.829999923706055 -243.05000305175781 -3200
-20.260000228881836 -243.05000305175781 -3200
-9.5399999618530273 -243.05000305175781 -3400
-4.7699999809265137 -243.05000305175781 -3500
-146.55000305175781 -241.86000061035156 -800
-142.97000122070313 -241.86000061035156 -1200
-139.39999389648438 -241.86000061035156 -1600
-127.48000335693359 -241.86000061035156 -2900
-123.91000366210938 -241.86000061035156 -3200
-115.56999969482422 -241.86000061035156 -3700
-83.400001525878906 -241.86000061035156 -4000
-39.319999694824219 -241.86000061035156 -3000
-30.979999542236328 -241.86000061035156 -2900
-120.33999633789063 -240.66999816894531 -3600.9998321533203
-98.889999389648438 -240.66999816894531 -4200
-95.319999694824219 -240.66999816894531 -4200
-69.110000610351563 -240.66999816894531 -3400
-65.529998779296875 -240.66999816894531 -3300.9998321533203
-57.189998626708984 -240.66999816894531 -3000
-53.619998931884766 -240.66999816894531 -2900
-35.75 -240.66999816894531 -2600
-14.300000190734863 -240.66999816894531 -2700
-1.2100000381469727 -240.66999816894531 -3000
-135.83000183105469 -239.47999572753906 -2600
-132.25 -239.47999572753906 -3000
-112 -239.47999572753906 -4100
-108.41999816894531 -239.47999572753906 -4200
-103.66000366210938 -239.47999572753906 -4200
-91.739997863769531 -239.47999572753906 -4000
-88.169998168945313 -239.47999572753906 -3900
-79.830001831054688 -239.47999572753906 -3600.9998321533203
-73.879997253417969 -239.47999572753906 -3300.9998321533203
-60.770000457763672 -239.47999572753906 -2800
-50.040000915527344 -239.47999572753906 -2500
-42.900001525878906 -239.47999572753906 -2400
-26.219999313354492 -239.47999572753906 -2200
-21.450000762939453 -239.47999572753906 -2300
-5.9600000381469727 -239.47999572753906 -2500
2.380000114440918 -239.47999572753906 -2800
-141.77999877929688 -238.28999328613281 -2300
-128.67999267578125 -238.28999328613281 -3500
-125.09999847412109 -238.28999328613281 -3700
-116.76000213623047 -238.28999328613281 -4100
-84.589996337890625 -238.28999328613281 -3500
-46.470001220703125 -238.28999328613281 -2100
-39.319999694824219 -238.28999328613281 -2000
-32.169998168945313 -238.28999328613281 -1900
-17.879999160766602 -238.28999328613281 -1900
-10.729999542236328 -238.28999328613281 -2100
-97.699996948242188 -237.08999633789063 -3900
-70.30999755859375 -237.08999633789063 -2600
-66.720001220703125 -237.08999633789063 -2400
-57.189998626708984 -237.08999633789063 -2000
-53.619998931884766 -237.08999633789063 -1900
-35.75 -237.08999633789063 -1500
-1.2100000381469727 -237.08999633789063 -2000
-146.55000305175781 -235.89999389648438 -2300
-134.6300048828125 -235.89999389648438 -3500
-113.19000244140625 -235.89999389648438 -4200
-106.04000091552734 -235.89999389648438 -4000
-102.47000122070313 -235.89999389648438 -3900
-91.739997863769531 -235.89999389648438 -3400
-88.169998168945313 -235.89999389648438 -3200
-76.25 -235.89999389648438 -2600
-26.219999313354492 -235.89999389648438 -1100
-21.450000762939453 -235.89999389648438 -1200
-14.300000190734863 -235.89999389648438 -1300
-5.9600000381469727 -235.89999389648438 -1500
2.380000114440918 -235.89999389648438 -1801.0000228881836
-140.58999633789063 -234.71000671386719 -3200
-128.67999267578125 -234.71000671386719 -4000
-123.91000366210938 -234.71000671386719 -4100
-82.209999084472656 -234.71000671386719 -2600
-63.150001525878906 -234.71000671386719 -1600
-48.849998474121094 -234.71000671386719 -1100
-45.279998779296875 -234.71000671386719 -1000
-29.790000915527344 -234.71000671386719 -800
-17.879999160766602 -234.71000671386719 -800
-10.729999542236328 -234.71000671386719 -1000
-117.94999694824219 -233.52000427246094 -4200
-98.889999389648438 -233.52000427246094 -3300.9998321533203
-71.489997863769531 -233.52000427246094 -1600
-67.919998168945313 -233.52000427246094 -1400
-53.619998931884766 -233.52000427246094 -800
-41.700000762939453 -233.52000427246094 -500
-38.130001068115234 -233.52000427246094 -500
-33.360000610351563 -233.52000427246094 -400
-2.4000000953674316 -233.52000427246094 -800
-145.36000061035156 -232.33000183105469 -3200
-135.83000183105469 -232.33000183105469 -3900
-132.25 -232.33000183105469 -4100
-114.37999725341797 -232.33000183105469 -4000
-104.84999847412109 -232.33000183105469 -3500
-94.129997253417969 -232.33000183105469 -2700
-90.550003051757813 -232.33000183105469 -2500
-86.980003356933594 -232.33000183105469 -2200
-78.639999389648438 -232.33000183105469 -1700
-75.05999755859375 -232.33000183105469 -1500
-58.380001068115234 -232.33000183105469 -600
-25.020000457763672 -232.33000183105469 -100
-21.450000762939453 -232.33000183105469 -100
-7.1500000953674316 -232.33000183105469 -300
1.190000057220459 -232.33000183105469 -600
-141.77999877929688 -231.13999938964844 -3700
-126.29000091552734 -231.13999938964844 -4200
-122.72000122070313 -231.13999938964844 -4100
-109.61000061035156 -231.13999938964844 -3500
-63.150001525878906 -231.13999938964844 -500
-50.040000915527344 -231.13999938964844 0
-45.279998779296875 -231.13999938964844 100
-29.790000915527344 -231.13999938964844 300
-17.879999160766602 -231.13999938964844 200
-13.109999656677246 -231.13999938964844 100
-117.94999694824219 -229.94999694824219 -3800
-98.889999389648438 -229.94999694824219 -2500
-70.30999755859375 -229.94999694824219 -500
-66.720001220703125 -229.94999694824219 -300
-54.810001373291016 -229.94999694824219 200
-40.509998321533203 -229.94999694824219 500
-36.939998626708984 -229.94999694824219 600
-33.360000610351563 -229.94999694824219 600
-3.5799999237060547 -229.94999694824219 300
-135.83000183105469 -228.75 -4200
-131.05999755859375 -228.75 -4200
-114.37999725341797 -228.75 -3400
-106.04000091552734 -228.75 -2700
-102.47000122070313 -228.75 -2400
-95.319999694824219 -228.75 -1900
-88.169998168945313 -228.75 -1300
-83.400001525878906 -228.75 -901.00002288818359
-79.830001831054688 -228.75 -700
-75.05999755859375 -228.75 -400
-25.020000457763672 -228.75 900
-21.450000762939453 -228.75 900
0 -228.75 500
-147.75 -227.55999755859375 -3800
-141.77999877929688 -227.55999755859375 -4100
-127.48000335693359 -227.55999755859375 -4000
-121.52999877929688 -227.55999755859375 -3700
-91.739997863769531 -227.55999755859375 -1200
-63.150001525878906 -227.55999755859375 500
-59.580001831054688 -227.55999755859375 700
-51.240001678466797 -227.55999755859375 900
-47.659999847412109 -227.55999755859375 1000
-44.090000152587891 -227.55999755859375 1100
-28.600000381469727 -227.55999755859375 1200
-16.680000305175781 -227.55999755859375 1100
-13.109999656677246 -227.55999755859375 1100
-9.5399999618530273 -227.55999755859375 1000
-117.94999694824219 -226.3699951171875 -3200
-110.80999755859375 -226.3699951171875 -2600
-71.489997863769531 -226.3699951171875 500
-67.919998168945313 -226.3699951171875 600
-56 -226.3699951171875 1100
-39.319999694824219 -226.3699951171875 1400
-35.75 -226.3699951171875 1400
-3.5799999237060547 -226.3699951171875 1200
-138.22000122070313 -225.17999267578125 -4200
-134.6300048828125 -225.17999267578125 -4100
-106.04000091552734 -225.17999267578125 -1801.0000228881836
-102.47000122070313 -225.17999267578125 -1400
-98.889999389648438 -225.17999267578125 -1100
-86.980003356933594 -225.17999267578125 -200
-82.209999084472656 -225.17999267578125 200
-78.639999389648438 -225.17999267578125 400
-23.829999923706055 -225.17999267578125 1700
0 -225.17999267578125 1400
-146.55000305175781 -223.99000549316406 -4100
-141.77999877929688 -223.99000549316406 -4200
-131.05999755859375 -223.99000549316406 -3700
-126.29000091552734 -223.99000549316406 -3400
-121.52999877929688 -223.99000549316406 -3000
-75.05999755859375 -223.99000549316406 900
-59.580001831054688 -223.99000549316406 1500
-51.240001678466797 -223.99000549316406 1700
-46.470001220703125 -223.99000549316406 1800
-16.680000305175781 -223.99000549316406 1900
-13.109999656677246 -223.99000549316406 1900
-9.5399999618530273 -223.99000549316406 1800
-117.94999694824219 -222.80000305175781 -2300
-110.80999755859375 -222.80000305175781 -1600
-95.319999694824219 -222.80000305175781 -100
-90.550003051757813 -222.80000305175781 200
-69.110000610351563 -222.80000305175781 1400
-65.529998779296875 -222.80000305175781 1500
-42.900001525878906 -222.80000305175781 2100
-38.130001068115234 -222.80000305175781 2100
-32.169998168945313 -222.80000305175781 2100
-27.409999847412109 -222.80000305175781 2200
-20.260000228881836 -222.80000305175781 2100
-5.9600000381469727 -222.80000305175781 2000
-138.22000122070313 -221.61000061035156 -3900
-134.6300048828125 -221.61000061035156 -3600.9998321533203
-106.04000091552734 -221.61000061035156 -800
-102.47000122070313 -221.61000061035156 -400
-98.889999389648438 -221.61000061035156 -100
-85.790000915527344 -221.61000061035156 800
-81.019996643066406 -221.61000061035156 1100
-56 -221.61000061035156 2000
-1.2100000381469727 -221.61000061035156 2100
-142.97000122070313 -220.41000366210938 -4000
-131.05999755859375 -220.41000366210938 -3100
-125.09999847412109 -220.41000366210938 -2500
-121.52999877929688 -220.41000366210938 -2100
-73.879997253417969 -220.41000366210938 1700
-61.959999084472656 -220.41000366210938 2100
-50.040000915527344 -220.41000366210938 2300
-46.470001220703125 -220.41000366210938 2400
-23.829999923706055 -220.41000366210938 2500
-15.489999771118164 -220.41000366210938 2500
-11.920000076293945 -220.41000366210938 2400
-146.55000305175781 -219.22000122070313 -4000
-117.94999694824219 -219.22000122070313 -1300
-113.19000244140625 -219.22000122070313 -800
-109.61000061035156 -219.22000122070313 -500
-94.129997253417969 -219.22000122070313 900
-89.360000610351563 -219.22000122070313 1200
-77.449996948242188 -219.22000122070313 1800
-70.30999755859375 -219.22000122070313 2100
-42.900001525878906 -219.22000122070313 2600
-39.319999694824219 -219.22000122070313 2600
-35.75 -219.22000122070313 2600
-30.979999542236328 -219.22000122070313 2700
-20.260000228881836 -219.22000122070313 2700
-8.3400001525878906 -219.22000122070313 2600
-4.7699999809265137 -219.22000122070313 2500
2.380000114440918 -219.22000122070313 2400
-137.02000427246094 -218.02999877929688 -3100
-104.84999847412109 -218.02999877929688 300
-97.699996948242188 -218.02999877929688 900
-83.400001525878906 -218.02999877929688 1700
-66.720001220703125 -218.02999877929688 2300
-58.380001068115234 -218.02999877929688 2500
-54.810001373291016 -218.02999877929688 2600
-1.2100000381469727 -218.02999877929688 2600
-142.97000122070313 -216.83999633789063 -3500
-129.8699951171875 -216.83999633789063 -2100
-126.29000091552734 -216.83999633789063 -1600
-122.72000122070313 -216.83999633789063 -1200
-73.879997253417969 -216.83999633789063 2300
-61.959999084472656 -216.83999633789063 2600
-51.240001678466797 -216.83999633789063 2800
-47.659999847412109 -216.83999633789063 2800
-26.219999313354492 -216.83999633789063 2900
-15.489999771118164 -216.83999633789063 2900
-146.55000305175781 -215.64999389648438 -3600.9998321533203
-133.44000244140625 -215.64999389648438 -2200
-119.15000152587891 -215.64999389648438 -500
-113.19000244140625 -215.64999389648438 100
-108.41999816894531 -215.64999389648438 600
-94.129997253417969 -215.64999389648438 1600
-89.360000610351563 -215.64999389648438 1900
-79.830001831054688 -215.64999389648438 2300
-70.30999755859375 -215.64999389648438 2600
-44.090000152587891 -215.64999389648438 2900
-38.130001068115234 -215.64999389648438 3000
-33.360000610351563 -215.64999389648438 3000
-29.790000915527344 -215.64999389648438 3000
-22.639999389648438 -215.64999389648438 3000
-19.069999694824219 -215.64999389648438 3000
-11.920000076293945 -215.64999389648438 3000
-8.3400001525878906 -215.64999389648438 2900
-138.22000122070313 -214.46000671386719 -2500
-104.84999847412109 -214.46000671386719 1200
-84.589996337890625 -214.46000671386719 2300
-66.720001220703125 -214.46000671386719 2800
-57.189998626708984 -214.46000671386719 2900
-4.7699999809265137 -214.46000671386719 3000
2.380000114440918 -214.46000671386719 2900
-142.97000122070313 -213.27000427246094 -2800
-126.29000091552734 -213.27000427246094 -700
-122.72000122070313 -213.27000427246094 -300
-101.26999664306641 -213.27000427246094 1600
-76.25 -213.27000427246094 2700
-60.770000457763672 -213.27000427246094 2900
-51.240001678466797 -213.27000427246094 3000
-47.659999847412109 -213.27000427246094 3100
-26.219999313354492 -213.27000427246094 3100
-15.489999771118164 -213.27000427246094 3100
-1.2100000381469727 -213.27000427246094 3100
-147.75 -212.07000732421875 -3000
-134.6300048828125 -212.07000732421875 -1400
-131.05999755859375 -212.07000732421875 -901.00002288818359
-115.56999969482422 -212.07000732421875 800
-110.80999755859375 -212.07000732421875 1200
-97.699996948242188 -212.07000732421875 2100
-92.930000305175781 -212.07000732421875 2300
-81.019996643066406 -212.07000732421875 2700
-72.680000305175781 -212.07000732421875 2900
-41.700000762939453 -212.07000732421875 3100
-38.130001068115234 -212.07000732421875 3100
-33.360000610351563 -212.07000732421875 3100
-29.790000915527344 -212.07000732421875 3200
-22.639999389648438 -212.07000732421875 3200
-8.3400001525878906 -212.07000732421875 3100
-138.22000122070313 -210.8800048828125 -1500
-119.15000152587891 -210.8800048828125 700
-107.23000335693359 -210.8800048828125 1700
-89.360000610351563 -210.8800048828125 2600
-84.589996337890625 -210.8800048828125 2700
-69.110000610351563 -210.8800048828125 3000
-64.339996337890625 -210.8800048828125 3000
-57.189998626708984 -210.8800048828125 3100
-11.920000076293945 -210.8800048828125 3200
-4.7699999809265137 -210.8800048828125 3200
2.380000114440918 -210.8800048828125 3200
-142.97000122070313 -209.69000244140625 -1900
-127.48000335693359 -209.69000244140625 100
-103.66000366210938 -209.69000244140625 2100
-77.449996948242188 -209.69000244140625 3000
-60.770000457763672 -209.69000244140625 3100
-53.619998931884766 -209.69000244140625 3100
-50.040000915527344 -209.69000244140625 3200
-46.470001220703125 -209.69000244140625 3200
-19.069999694824219 -209.69000244140625 3200
-1.2100000381469727 -209.69000244140625 3200
-147.75 -208.5 -2200
-131.05999755859375 -208.5 0
-122.72000122070313 -208.5 900
-114.37999725341797 -208.5 1600
-110.80999755859375 -208.5 1900
-100.08000183105469 -208.5 2400
-96.510002136230469 -208.5 2600
-92.930000305175781 -208.5 2700
-73.879997253417969 -208.5 3100
-40.509998321533203 -208.5 3200
-33.360000610351563 -208.5 3200
-29.790000915527344 -208.5 3200
-25.020000457763672 -208.5 3200
-15.489999771118164 -208.5 3200
-139.39999389648438 -207.30999755859375 -800
-135.83000183105469 -207.30999755859375 -300
-119.15000152587891 -207.30999755859375 1500
-86.980003356933594 -207.30999755859375 2900
-83.400001525878906 -207.30999755859375 3000
-67.919998168945313 -207.30999755859375 3100
-57.189998626708984 -207.30999755859375 3200
-36.939998626708984 -207.30999755859375 3100
-11.920000076293945 -207.30999755859375 3200
-8.3400001525878906 -207.30999755859375 3200
-144.16000366210938 -206.1199951171875 -1100
-127.48000335693359 -206.1199951171875 1000
-106.04000091552734 -206.1199951171875 2500
-79.830001831054688 -206.1199951171875 3100
-63.150001525878906 -206.1199951171875 3100
-51.240001678466797 -206.1199951171875 3100
-47.659999847412109 -206.1199951171875 3100
-21.450000762939453 -206.1199951171875 3100
-4.7699999809265137 -206.1199951171875 3200
0 -206.1199951171875 3200
-147.75 -204.92999267578125 -1300
-132.25 -204.92999267578125 700
-123.91000366210938 -204.92999267578125 1500
-115.56999969482422 -204.92999267578125 2100
-112 -204.92999267578125 2300
-96.510002136230469 -204.92999267578125 2900
-92.930000305175781 -204.92999267578125 3000
-76.25 -204.92999267578125 3100
-72.680000305175781 -204.92999267578125 3100
-44.090000152587891 -204.92999267578125 3100
-40.509998321533203 -204.92999267578125 3100
-32.169998168945313 -204.92999267578125 3000
-28.600000381469727 -204.92999267578125 3000
-25.020000457763672 -204.92999267578125 3100
-15.489999771118164 -204.92999267578125 3100
-140.58999633789063 -203.72999572753906 0
-135.83000183105469 -203.72999572753906 600
-120.33999633789063 -203.72999572753906 2000
-101.26999664306641 -203.72999572753906 2900
-88.169998168945313 -203.72999572753906 3100
-84.589996337890625 -203.72999572753906 3100
-69.110000610351563 -203.72999572753906 3100
-54.810001373291016 -203.72999572753906 3100
-36.939998626708984 -203.72999572753906 3000
-11.920000076293945 -203.72999572753906 3000
-127.48000335693359 -202.53999328613281 1700
-108.41999816894531 -202.53999328613281 2700
-104.84999847412109 -202.53999328613281 2900
-65.529998779296875 -202.53999328613281 3100
-47.659999847412109 -202.53999328613281 3000
-21.450000762939453 -202.53999328613281 2900
-8.3400001525878906 -202.53999328613281 3000
-4.7699999809265137 -202.53999328613281 3000
0 -202.53999328613281 3000
-146.55000305175781 -201.35000610351563 -200
-132.25 -201.35000610351563 1400
-116.76000213623047 -201.35000610351563 2500
-95.319999694824219 -201.35000610351563 3100
-81.019996643066406 -201.35000610351563 3100
-77.449996948242188 -201.35000610351563 3100
-73.879997253417969 -201.35000610351563 3100
-33.360000610351563 -201.35000610351563 2800
-28.600000381469727 -201.35000610351563 2800
-25.020000457763672 -201.35000610351563 2800
-16.680000305175781 -201.35000610351563 2800
-142.97000122070313 -200.16000366210938 500
-139.39999389648438 -200.16000366210938 900
-135.83000183105469 -200.16000366210938 1300
-120.33999633789063 -200.16000366210938 2500
-98.889999389648438 -200.16000366210938 3100
-88.169998168945313 -200.16000366210938 3100
-69.110000610351563 -200.16000366210938 3000
-61.959999084472656 -200.16000366210938 2900
-53.619998931884766 -200.16000366210938 2800
-44.090000152587891 -200.16000366210938 2700
-40.509998321533203 -200.16000366210938 2700
-11.920000076293945 -200.16000366210938 2800
-128.67999267578125 -198.97000122070313 2100
-123.91000366210938 -198.97000122070313 2400
-113.19000244140625 -198.97000122070313 2900
-108.41999816894531 -198.97000122070313 3000
-103.66000366210938 -198.97000122070313 3100
-58.380001068115234 -198.97000122070313 2800
-48.849998474121094 -198.97000122070313 2700
-36.939998626708984 -198.97000122070313 2600
-20.260000228881836 -198.97000122070313 2600
-7.1500000953674316 -198.97000122070313 2700
-1.2100000381469727 -198.97000122070313 2800
-146.55000305175781 -197.77999877929688 600
-116.76000213623047 -197.77999877929688 2800
-95.319999694824219 -197.77999877929688 3100
-84.589996337890625 -197.77999877929688 3000
-81.019996643066406 -197.77999877929688 3000
-72.680000305175781 -197.77999877929688 2900
-65.529998779296875 -197.77999877929688 2800
-33.360000610351563 -197.77999877929688 2400
-29.790000915527344 -197.77999877929688 2400
-26.219999313354492 -197.77999877929688 2400
2.380000114440918 -197.77999877929688 2700
-139.39999389648438 -196.58999633789063 1600
-134.6300048828125 -196.58999633789063 2000
-120.33999633789063 -196.58999633789063 2800
-100.08000183105469 -196.58999633789063 3100
-88.169998168945313 -196.58999633789063 3000
-77.449996948242188 -196.58999633789063 2900
-53.619998931884766 -196.58999633789063 2500
-45.279998779296875 -196.58999633789063 2300
-16.680000305175781 -196.58999633789063 2300
-11.920000076293945 -196.58999633789063 2300
-142.97000122070313 -195.39999389648438 1500
-126.29000091552734 -195.39999389648438 2700
-113.19000244140625 -195.39999389648438 3000
-106.04000091552734 -195.39999389648438 3100
-60.770000457763672 -195.39999389648438 2400
-57.189998626708984 -195.39999389648438 2400
-48.849998474121094 -195.39999389648438 2200
-40.509998321533203 -195.39999389648438 2100
-21.450000762939453 -195.39999389648438 2100
-8.3400001525878906 -195.39999389648438 2200
-4.7699999809265137 -195.39999389648438 2300
-146.55000305175781 -194.19999694824219 1300
-116.76000213623047 -194.19999694824219 3000
-109.61000061035156 -194.19999694824219 3100
-96.510002136230469 -194.19999694824219 3000
-91.739997863769531 -194.19999694824219 3000
-83.400001525878906 -194.19999694824219 2800
-73.879997253417969 -194.19999694824219 2600
-70.30999755859375 -194.19999694824219 2500
-65.529998779296875 -194.19999694824219 2400
-34.569999694824219 -194.19999694824219 1900
-30.979999542236328 -194.19999694824219 1900
0 -194.19999694824219 2200
-138.22000122070313 -193.00999450683594 2300
-132.25 -193.00999450683594 2600
-120.33999633789063 -193.00999450683594 3000
-100.08000183105469 -193.00999450683594 3000
-88.169998168945313 -193.00999450683594 2800
-78.639999389648438 -193.00999450683594 2600
-53.619998931884766 -193.00999450683594 1900
-45.279998779296875 -193.00999450683594 1800
-17.879999160766602 -193.00999450683594 1700
-14.300000190734863 -193.00999450683594 1700
-142.97000122070313 -191.82000732421875 2100
-127.48000335693359 -191.82000732421875 2900
-106.04000091552734 -191.82000732421875 3100
-61.959999084472656 -191.82000732421875 2000
-50.040000915527344 -191.82000732421875 1700
-40.509998321533203 -191.82000732421875 1500
-23.829999923706055 -191.82000732421875 1400
-10.729999542236328 -191.82000732421875 1600
-7.1500000953674316 -191.82000732421875 1600
-3.5799999237060547 -191.82000732421875 1700
-146.55000305175781 -190.6300048828125 1900
-114.37999725341797 -190.6300048828125 3100
-110.80999755859375 -190.6300048828125 3100
-95.319999694824219 -190.6300048828125 2800
-91.739997863769531 -190.6300048828125 2700
-84.589996337890625 -190.6300048828125 2500
-75.05999755859375 -190.6300048828125 2200
-71.489997863769531 -190.6300048828125 2100
-65.529998779296875 -190.6300048828125 1900
-36.939998626708984 -190.6300048828125 1200
-30.979999542236328 -190.6300048828125 1200
-27.409999847412109 -190.6300048828125 1200
0 -190.6300048828125 1600
-138.22000122070313 -189.44000244140625 2600
-133.44000244140625 -189.44000244140625 2800
-122.72000122070313 -189.44000244140625 3100
-119.15000152587891 -189.44000244140625 3100
-102.47000122070313 -189.44000244140625 2900
-98.889999389648438 -189.44000244140625 2800
-88.169998168945313 -189.44000244140625 2500
-81.019996643066406 -189.44000244140625 2200
-58.380001068115234 -189.44000244140625 1400
-46.470001220703125 -189.44000244140625 1100
-19.069999694824219 -189.44000244140625 900
-15.489999771118164 -189.44000244140625 1000
-127.48000335693359 -188.25 3000
-53.619998931884766 -188.25 1000
-42.900001525878906 -188.25 800
-23.829999923706055 -188.25 600
-10.729999542236328 -188.25 800
-4.7699999809265137 -188.25 900
-146.55000305175781 -187.05999755859375 2400
-142.97000122070313 -187.05999755859375 2600
-114.37999725341797 -187.05999755859375 3000
-110.80999755859375 -187.05999755859375 3000
-107.23000335693359 -187.05999755859375 2900
-92.930000305175781 -187.05999755859375 2400
-84.589996337890625 -187.05999755859375 2000
-77.449996948242188 -187.05999755859375 1700
-73.879997253417969 -187.05999755859375 1600
-70.30999755859375 -187.05999755859375 1400
-64.339996337890625 -187.05999755859375 1200
-50.040000915527344 -187.05999755859375 700
-36.939998626708984 -187.05999755859375 400
-33.360000610351563 -187.05999755859375 400
-29.790000915527344 -187.05999755859375 300
0 -187.05999755859375 800
-138.22000122070313 -185.86000061035156 2900
-134.6300048828125 -185.86000061035156 3000
-123.91000366210938 -185.86000061035156 3100
-120.33999633789063 -185.86000061035156 3100
-103.66000366210938 -185.86000061035156 2700
-100.08000183105469 -185.86000061035156 2500
-88.169998168945313 -185.86000061035156 2000
-81.019996643066406 -185.86000061035156 1700
-59.580001831054688 -185.86000061035156 700
-19.069999694824219 -185.86000061035156 100
-131.05999755859375 -184.66999816894531 3100
-127.48000335693359 -184.66999816894531 3100
-56 -184.66999816894531 300
-41.700000762939453 -184.66999816894531 -100
-25.020000457763672 -184.66999816894531 -300
-15.489999771118164 -184.66999816894531 -200
-11.920000076293945 -184.66999816894531 -100
-8.3400001525878906 -184.66999816894531 0
-4.7699999809265137 -184.66999816894531 100
-144.16000366210938 -183.47999572753906 2800
-114.37999725341797 -183.47999572753906 2800
-108.41999816894531 -183.47999572753906 2600
-96.510002136230469 -183.47999572753906 2100
-92.930000305175781 -183.47999572753906 1900
-77.449996948242188 -183.47999572753906 1100
-73.879997253417969 -183.47999572753906 900
-66.720001220703125 -183.47999572753906 500
-48.849998474121094 -183.47999572753906 -200
-35.75 -183.47999572753906 -500
-32.169998168945313 -183.47999572753906 -600
-28.600000381469727 -183.47999572753906 -600
0 -183.47999572753906 -100
-134.6300048828125 -182.28999328613281 3100
-123.91000366210938 -182.28999328613281 3000
-119.15000152587891 -182.28999328613281 2900
-104.84999847412109 -182.28999328613281 2300
-101.26999664306641 -182.28999328613281 2200
-89.360000610351563 -182.28999328613281 1500
-82.209999084472656 -182.28999328613281 1100
-70.30999755859375 -182.28999328613281 400
-63.150001525878906 -182.28999328613281 0
-59.580001831054688 -182.28999328613281 -100
-20.260000228881836 -182.28999328613281 -901.00002288818359
-139.39999389648438 -181.10000610351563 3000
-129.8699951171875 -181.10000610351563 3100
-85.790000915527344 -181.10000610351563 1100
-54.810001373291016 -181.10000610351563 -700
-45.279998779296875 -181.10000610351563 -1000
-41.700000762939453 -181.10000610351563 -1100
-13.109999656677246 -181.10000610351563 -1100
-9.5399999618530273 -181.10000610351563 -1000
-5.9600000381469727 -181.10000610351563 -901.00002288818359
-145.36000061035156 -179.91000366210938 3000
-115.56999969482422 -179.91000366210938 2600
-110.80999755859375 -179.91000366210938 2400
-92.930000305175781 -179.91000366210938 1300
-77.449996948242188 -179.91000366210938 300
-50.040000915527344 -179.91000366210938 -1200
-34.569999694824219 -179.91000366210938 -1600
-30.979999542236328 -179.91000366210938 -1600
-26.219999313354492 -179.91000366210938 -1600
-1.2100000381469727 -179.91000366210938 -1100
-135.83000183105469 -178.72000122070313 3100
-126.29000091552734 -178.72000122070313 2900
-122.72000122070313 -178.72000122070313 2800
-119.15000152587891 -178.72000122070313 2600
-106.04000091552734 -178.72000122070313 1900
-102.47000122070313 -178.72000122070313 1700
-98.889999389648438 -178.72000122070313 1500
-89.360000610351563 -178.72000122070313 800
-72.680000305175781 -178.72000122070313 -300
-69.110000610351563 -178.72000122070313 -600
-65.529998779296875 -178.72000122070313 -800
-61.959999084472656 -178.72000122070313 -1000
-58.380001068115234 -178.72000122070313 -1200
-19.069999694824219 -178.72000122070313 -1900
2.380000114440918 -178.72000122070313 -1300
-139.39999389648438 -177.52000427246094 3100
-131.05999755859375 -177.52000427246094 3000
-83.400001525878906 -177.52000427246094 100
-44.090000152587891 -177.52000427246094 -2000
-22.639999389648438 -177.52000427246094 -2300
-15.489999771118164 -177.52000427246094 -2200
-11.920000076293945 -177.52000427246094 -2100
-8.3400001525878906 -177.52000427246094 -2000
-146.55000305175781 -176.33000183105469 3000
-114.37999725341797 -176.33000183105469 2100
-110.80999755859375 -176.33000183105469 1900
-92.930000305175781 -176.33000183105469 600
-79.830001831054688 -176.33000183105469 -400
-76.25 -176.33000183105469 -700
-54.810001373291016 -176.33000183105469 -2000
-50.040000915527344 -176.33000183105469 -2200
-36.939998626708984 -176.33000183105469 -2500
-33.360000610351563 -176.33000183105469 -2600
-28.600000381469727 -176.33000183105469 -2600
-4.7699999809265137 -176.33000183105469 -2300
-1.2100000381469727 -176.33000183105469 -2100
-135.83000183105469 -175.13999938964844 3000
-125.09999847412109 -175.13999938964844 2600
-121.52999877929688 -175.13999938964844 2400
-117.94999694824219 -175.13999938964844 2200
-107.23000335693359 -175.13999938964844 1500
-103.66000366210938 -175.13999938964844 1200
-100.08000183105469 -175.13999938964844 900
-96.510002136230469 -175.13999938964844 600
-89.360000610351563 -175.13999938964844 0
-66.720001220703125 -175.13999938964844 -1700
-63.150001525878906 -175.13999938964844 -1900
-59.580001831054688 -175.13999938964844 -2100
-19.069999694824219 -175.13999938964844 -2900
2.380000114440918 -175.13999938964844 -2300
-141.77999877929688 -173.94999694824219 3000
-132.25 -173.94999694824219 2800
-128.67999267578125 -173.94999694824219 2600
-85.790000915527344 -173.94999694824219 -600
-70.30999755859375 -173.94999694824219 -1801.0000228881836
-46.470001220703125 -173.94999694824219 -2900
-41.700000762939453 -173.94999694824219 -3000
-23.829999923706055 -173.94999694824219 -3200
-15.489999771118164 -173.94999694824219 -3100
-11.920000076293945 -173.94999694824219 -3100
-148.92999267578125 -172.75999450683594 3100
-145.36000061035156 -172.75999450683594 3100
-114.37999725341797 -172.75999450683594 1600
-81.019996643066406 -172.75999450683594 -1300
-76.25 -172.75999450683594 -1700
-51.240001678466797 -172.75999450683594 -3000
-38.130001068115234 -172.75999450683594 -3400
-33.360000610351563 -172.75999450683594 -3400
-28.600000381469727 -172.75999450683594 -3500
-3.5799999237060547 -172.75999450683594 -3100
-138.22000122070313 -171.57000732421875 2900
-125.09999847412109 -171.57000732421875 2200
-121.52999877929688 -171.57000732421875 2000
-109.61000061035156 -171.57000732421875 1000
-106.04000091552734 -171.57000732421875 700
-97.699996948242188 -171.57000732421875 -100
-94.129997253417969 -171.57000732421875 -400
-90.550003051757813 -171.57000732421875 -800
-65.529998779296875 -171.57000732421875 -2700
-61.959999084472656 -171.57000732421875 -2900
-58.380001068115234 -171.57000732421875 -3000
-54.810001373291016 -171.57000732421875 -3200
-8.3400001525878906 -171.57000732421875 -3500
0 -171.57000732421875 -3300.9998321533203
-141.77999877929688 -170.3800048828125 2900
-134.6300048828125 -170.3800048828125 2600
-131.05999755859375 -170.3800048828125 2400
-86.980003356933594 -170.3800048828125 -1400
-72.680000305175781 -170.3800048828125 -2500
-45.279998779296875 -170.3800048828125 -3700
-23.829999923706055 -170.3800048828125 -3900
-17.879999160766602 -170.3800048828125 -3900
-14.300000190734863 -170.3800048828125 -3900
-145.36000061035156 -169.17999267578125 3000
-117.94999694824219 -169.17999267578125 1300
-114.37999725341797 -169.17999267578125 1000
-102.47000122070313 -169.17999267578125 -200
-83.400001525878906 -169.17999267578125 -2000
-69.110000610351563 -169.17999267578125 -3000
-48.849998474121094 -169.17999267578125 -3800
-35.75 -169.17999267578125 -4000
-32.169998168945313 -169.17999267578125 -4100
-3.5799999237060547 -169.17999267578125 -3900
-138.22000122070313 -167.99000549316406 2600
-125.09999847412109 -167.99000549316406 1700
-108.41999816894531 -167.99000549316406 100
-98.889999389648438 -167.99000549316406 -901.00002288818359
-79.830001831054688 -167.99000549316406 -2600
-65.529998779296875 -167.99000549316406 -3500
-61.959999084472656 -167.99000549316406 -3600.9998321533203
-57.189998626708984 -167.99000549316406 -3800
-53.619998931884766 -167.99000549316406 -3900
-39.319999694824219 -167.99000549316406 -4100
-27.409999847412109 -167.99000549316406 -4200
-10.729999542236328 -167.99000549316406 -4200
0 -167.99000549316406 -4000
-141.77999877929688 -166.80000305175781 2700
-134.6300048828125 -166.80000305175781 2300
-129.8699951171875 -166.80000305175781 1900
-121.52999877929688 -166.80000305175781 1200
-95.319999694824219 -166.80000305175781 -1500
-90.550003051757813 -166.80000305175781 -2000
-86.980003356933594 -166.80000305175781 -2300
-75.05999755859375 -166.80000305175781 -3200
-45.279998779296875 -166.80000305175781 -4200
-23.829999923706055 -166.80000305175781 -4300
-17.879999160766602 -166.80000305175781 -4300
-14.300000190734863 -166.80000305175781 -4300
-7.1500000953674316 -166.80000305175781 -4200
-147.75 -165.61000061035156 2900
-117.94999694824219 -165.61000061035156 600
-113.19000244140625 -165.61000061035156 100
-104.84999847412109 -165.61000061035156 -800
-70.30999755859375 -165.61000061035156 -3700
-34.569999694824219 -165.61000061035156 -4300
-138.22000122070313 -164.41999816894531 2300
-81.019996643066406 -164.41999816894531 -3300.9998321533203
-65.529998779296875 -164.41999816894531 -4000
-60.770000457763672 -164.41999816894531 -4200
-56 -164.41999816894531 -4200
-52.430000305175781 -164.41999816894531 -4300
-40.509998321533203 -164.41999816894531 -4300
-30.979999542236328 -164.41999816894531 -4300
-3.5799999237060547 -164.41999816894531 -4400
0 -164.41999816894531 -4400
-144.16000366210938 -163.22999572753906 2500
-133.44000244140625 -163.22999572753906 1700
-129.8699951171875 -163.22999572753906 1400
-125.09999847412109 -163.22999572753906 900
-109.61000061035156 -163.22999572753906 -800
-101.26999664306641 -163.22999572753906 -1801.0000228881836
-97.699996948242188 -163.22999572753906 -2200
-86.980003356933594 -163.22999572753906 -3100
-77.449996948242188 -163.22999572753906 -3700
-46.470001220703125 -163.22999572753906 -4300
-27.409999847412109 -163.22999572753906 -4300
-22.639999389648438 -163.22999572753906 -4300
-14.300000190734863 -163.22999572753906 -4300
-120.33999633789063 -162.03999328613281 200
-115.56999969482422 -162.03999328613281 -400
-106.04000091552734 -162.03999328613281 -1500
-94.129997253417969 -162.03999328613281 -2800
-72.680000305175781 -162.03999328613281 -4100
-36.939998626708984 -162.03999328613281 -4200
-19.069999694824219 -162.03999328613281 -4200
-10.729999542236328 -162.03999328613281 -4300
-7.1500000953674316 -162.03999328613281 -4300
-137.02000427246094 -160.83999633789063 1700
-90.550003051757813 -160.83999633789063 -3400
-83.400001525878906 -160.83999633789063 -3800
-69.110000610351563 -160.83999633789063 -4200
-65.529998779296875 -160.83999633789063 -4300
-60.770000457763672 -160.83999633789063 -4300
-56 -160.83999633789063 -4200
-41.700000762939453 -160.83999633789063 -4100
-30.979999542236328 -160.83999633789063 -4100
-3.5799999237060547 -160.83999633789063 -4300
0 -160.83999633789063 -4300
-146.55000305175781 -159.64999389648438 2400
-141.77999877929688 -159.64999389648438 2000
-133.44000244140625 -159.64999389648438 1200
-128.67999267578125 -159.64999389648438 700
-123.91000366210938 -159.64999389648438 100
-112 -159.64999389648438 -1400
-98.889999389648438 -159.64999389648438 -2900
-79.830001831054688 -159.64999389648438 -4100
-52.430000305175781 -159.64999389648438 -4100
-48.849998474121094 -159.64999389648438 -4100
-25.020000457763672 -159.64999389648438 -3900
-15.489999771118164 -159.64999389648438 -3900
-120.33999633789063 -158.47000122070313 -600
-116.76000213623047 -158.47000122070313 -1100
-107.23000335693359 -158.47000122070313 -2300
-103.66000366210938 -158.47000122070313 -2700
-76.25 -158.47000122070313 -4200
-72.680000305175781 -158.47000122070313 -4300
-8.3400001525878906 -158.47000122070313 -3900
-138.22000122070313 -157.27000427246094 1300
-92.930000305175781 -157.27000427246094 -3800
-88.169998168945313 -157.27000427246094 -4000
-84.589996337890625 -157.27000427246094 -4100
-66.720001220703125 -157.27000427246094 -4100
-63.150001525878906 -157.27000427246094 -4100
-59.580001831054688 -157.27000427246094 -4000
-45.279998779296875 -157.27000427246094 -3600.9998321533203
-39.319999694824219 -157.27000427246094 -3500
-30.979999542236328 -157.27000427246094 -3400
-3.5799999237060547 -157.27000427246094 -3800
0 -157.27000427246094 -3900
-98.889999389648438 -156.08000183105469 -3600.9998321533203
4.1599998474121094 -153.69999694824219 -3300.9998321533203
7.7399997711181641 -153.69999694824219 -3500
10.720000267028809 -153.69999694824219 -3600.9998321533203
14.890000343322754 -153.69999694824219 -3800
17.870000839233398 -153.69999694824219 -4000
22.040000915527344 -153.69999694824219 -4200
25.610000610351563 -153.69999694824219 -4300
28.590000152587891 -153.69999694824219 -4400
32.75 -153.69999694824219 -4500
36.330001831054688 -153.69999694824219 -4400
39.909999847412109 -153.69999694824219 -4400
42.889999389648438 -153.69999694824219 -4200
45.860000610351563 -153.69999694824219 -4100
48.840000152587891 -153.69999694824219 -3800
52.419998168945313 -153.69999694824219 -3500
55.400001525878906 -153.69999694824219 -3100
58.369998931884766 -153.69999694824219 -2800
61.349998474121094 -153.69999694824219 -2300
64.330001831054688 -153.69999694824219 -1900
67.30999755859375 -153.69999694824219 -1400
70.870002746582031 -153.69999694824219 -800
76.25 -153.69999694824219 100
4.1599998474121094 -150.72000122070313 -2500
7.7399997711181641 -150.72000122070313 -2700
12.5 -150.72000122070313 -3000
15.479999542236328 -150.72000122070313 -3200
19.649999618530273 -150.72000122070313 -3500
23.229999542236328 -150.72000122070313 -3800
27.399999618530273 -150.72000122070313 -4000
30.379999160766602 -150.72000122070313 -4200
33.950000762939453 -150.72000122070313 -4400
36.930000305175781 -150.72000122070313 -4400
39.909999847412109 -150.72000122070313 -4500
44.080001831054688 -150.72000122070313 -4400
47.060001373291016 -150.72000122070313 -4300
